ply
format ascii 1.0
element vertex 1306
property float x
property float y
property float z
property uchar red
property uchar green
property uchar blue
end_header
0.880859 -0.091553 0.219849 67 33 5
0.077454 -0.523438 -0.136963 160 109 0
-0.877441 -0.029587 0.082214 67 33 5
-0.502930 -0.046570 0.207031 67 33 5
0.055756 -0.493164 -0.089111 160 109 0
0.215210 -0.178467 -0.189453 67 33 5
0.127563 -0.475586 -0.029724 160 109 0
-0.842285 0.030594 0.091125 67 33 5
0.189087 0.156616 -0.069458 67 33 5
-0.156250 -0.006241 0.145874 67 33 5
0.082642 -0.318115 -0.167480 67 33 5
0.095215 -0.054596 -0.309326 67 33 5
-0.080261 0.300781 -0.278076 0 0 0
-0.749023 0.125854 -0.108948 67 33 5
-0.134155 -0.501465 -0.126221 160 109 0
-0.061829 -0.437988 0.313965 67 33 5
-0.211792 -0.182617 -0.193481 67 33 5
0.465820 0.051208 0.056396 67 33 5
0.080872 0.053894 -0.295898 67 33 5
0.781738 0.010910 0.035431 67 33 5
0.174438 0.311523 -0.237671 171 116 0
0.074036 -0.434570 0.295654 67 33 5
-0.307617 0.017715 -0.058167 67 33 5
0.479004 0.141113 -0.127686 67 33 5
0.711426 0.034668 -0.014084 67 33 5
0.151001 0.190186 -0.201538 67 33 5
0.079651 -0.173096 -0.276611 67 33 5
-0.280273 -0.054901 0.018677 67 33 5
-0.765625 0.025330 -0.005508 67 33 5
0.189209 0.197144 -0.164062 67 33 5
0.577148 0.002169 0.108276 67 33 5
-0.099487 -0.546875 -0.117737 160 109 0
-0.108582 0.462158 -0.242432 174 114 0
0.550781 0.051697 0.049530 67 33 5
-0.054230 0.113892 0.137573 67 33 5
-0.549316 0.037018 0.007706 67 33 5
0.033295 -0.400879 0.323242 67 33 5
0.077026 -0.415039 0.008522 67 33 5
0.189819 0.407715 -0.197998 67 33 5
-0.190063 -0.372803 0.010727 67 33 5
0.275146 0.015144 -0.154053 67 33 5
-0.873535 -0.151245 0.310303 67 33 5
-0.614746 0.035950 0.084778 67 33 5
0.233765 0.502441 -0.153076 174 114 0
0.056061 -0.411865 0.299805 67 33 5
0.083923 0.256348 -0.281494 35 13 0
0.290527 0.034912 -0.195190 67 33 5
0.103088 -0.367676 0.174805 67 33 5
-0.674316 -0.092224 0.275879 67 33 5
-0.476318 0.143433 -0.132935 67 33 5
0.115234 -0.543457 -0.092651 160 109 0
-0.001811 -0.187988 0.193970 67 33 5
-0.392334 -0.032257 0.189819 67 33 5
0.242432 0.386719 -0.034760 67 33 5
0.035675 -0.285645 0.167847 67 33 5
0.731934 0.010048 0.059601 67 33 5
0.616211 0.033142 0.012375 67 33 5
0.198608 0.417969 -0.249023 35 13 0
0.053284 -0.542480 -0.093750 160 109 0
0.725586 0.035156 -0.022232 67 33 5
-0.301025 0.023224 0.103333 67 33 5
-0.665527 0.002028 0.093079 67 33 5
0.514648 0.044922 -0.019623 67 33 5
-0.581055 0.045654 -0.027527 67 33 5
0.937012 -0.048859 0.075867 67 33 5
-0.613281 0.109558 -0.280762 67 33 5
0.166382 0.486572 -0.088745 67 33 5
-0.534668 0.054596 -0.062164 67 33 5
0.010437 -0.157349 -0.296631 67 33 5
0.692871 0.061310 -0.138062 67 33 5
-0.241333 0.038239 0.047455 67 33 5
-0.616699 -0.015121 0.180664 67 33 5
-0.118713 -0.379639 0.161255 67 33 5
-0.473389 0.081543 -0.005527 67 33 5
0.000919 -0.347412 -0.147705 67 33 5
0.895508 0.018890 -0.090271 67 33 5
0.152710 0.161743 -0.131836 67 33 5
-0.286865 -0.067322 -0.005886 67 33 5
-0.307861 0.038116 0.070984 67 33 5
0.163818 0.339111 -0.292236 171 116 0
-0.550293 0.142822 -0.119446 67 33 5
0.042969 -0.386475 0.300293 67 33 5
-0.543457 0.100769 -0.036438 67 33 5
0.104858 0.458008 -0.224731 67 33 5
-0.026932 0.518066 0.073975 67 33 5
-0.072083 -0.350830 0.177734 67 33 5
-0.889160 0.018311 -0.078552 67 33 5
-0.192993 0.382568 0.084534 67 33 5
-0.319092 0.029892 0.091858 67 33 5
0.262939 -0.176636 -0.091064 67 33 5
-0.435303 -0.006363 0.164429 67 33 5
-0.168579 0.199341 0.094238 67 33 5
-0.208862 0.440430 -0.107849 67 33 5
-0.131226 -0.544434 -0.109131 160 109 0
0.572266 0.019836 0.061401 67 33 5
-0.918457 0.044830 -0.132690 67 33 5
-0.015900 0.091064 -0.280518 67 33 5
-0.856934 -0.001289 0.135254 67 33 5
-0.191772 0.197876 0.054993 67 33 5
0.816406 0.005402 0.038391 67 33 5
0.174072 0.307617 -0.238770 171 116 0
0.806641 0.095947 -0.025055 67 33 5
0.245972 0.299072 -0.241455 35 13 0
-0.109924 0.144531 -0.223877 67 33 5
0.195801 0.445801 0.006729 67 33 5
-0.019119 0.482178 -0.196655 67 33 5
-0.368896 0.009689 0.107605 67 33 5
-0.610840 0.021133 0.114746 67 33 5
0.583008 0.084961 -0.262939 67 33 5
-0.053680 -0.351318 0.149902 67 33 5
0.197998 0.217041 0.059540 67 33 5
-0.175049 0.171265 0.066345 67 33 5
-0.679199 0.073853 -0.211914 67 33 5
0.635254 0.143921 -0.224365 67 33 5
0.401611 0.065979 -0.238647 67 33 5
0.186157 0.029449 0.109436 67 33 5
0.286621 0.115417 -0.124390 67 33 5
0.022308 0.498535 -0.166626 67 33 5
0.017944 -0.133789 0.202026 67 33 5
-0.219238 0.429932 -0.028381 67 33 5
-0.101624 -0.363525 -0.125122 67 33 5
-0.887207 -0.078735 0.237915 67 33 5
0.145386 0.119995 0.077759 67 33 5
-0.043152 -0.207397 -0.265625 67 33 5
-0.852051 -0.025269 0.090881 67 33 5
0.601562 -0.033630 0.203735 67 33 5
-0.018967 -0.213135 0.182983 67 33 5
-0.092468 0.366455 -0.281982 0 0 0
-0.112854 0.029922 0.164795 67 33 5
0.932617 -0.056152 0.098083 67 33 5
-0.149536 0.273926 -0.250000 171 116 0
0.254639 0.292236 -0.085693 67 33 5
-0.564941 0.076111 0.007694 67 33 5
-0.107178 -0.302979 -0.169922 67 33 5
0.195801 0.464111 -0.104370 67 33 5
-0.009102 -0.390869 0.342773 67 33 5
-0.687988 0.089661 -0.000431 67 33 5
-0.895020 -0.004513 -0.008400 67 33 5
0.122253 0.274170 -0.240845 171 116 0
0.867188 0.060974 0.005676 67 33 5
0.886719 0.063904 -0.167603 67 33 5
-0.879883 0.031555 0.053741 67 33 5
-0.011703 -0.404541 0.364502 67 33 5
0.766602 -0.147461 0.354980 67 33 5
-0.174561 0.084473 -0.229614 67 33 5
-0.056183 -0.162842 -0.286133 67 33 5
0.266602 0.037079 0.062042 67 33 5
-0.024323 -0.414551 0.344727 67 33 5
-0.140869 0.483154 0.043060 67 33 5
-0.020081 0.188110 -0.323486 129 89 20
0.967285 -0.018082 0.033539 67 33 5
-0.204834 0.216309 0.050354 67 33 5
-0.212036 0.077271 0.037903 67 33 5
0.029999 0.279785 -0.361572 129 89 20
0.107849 -0.123962 0.183472 67 33 5
-0.647949 -0.026474 0.164185 67 33 5
0.013626 0.543945 0.003489 67 33 5
0.216919 0.287842 -0.202759 67 33 5
-0.108337 0.287109 0.153198 67 33 5
-0.577637 -0.020081 0.160522 67 33 5
0.825195 0.034058 0.097534 67 33 5
0.916992 -0.048126 0.097595 67 33 5
0.411621 0.079712 -0.005249 67 33 5
-0.393066 0.123962 -0.103699 67 33 5
-0.022446 -0.056824 -0.321045 67 33 5
-0.011765 0.208984 -0.223877 129 89 20
0.234863 0.026871 0.062225 67 33 5
-0.907715 -0.006729 -0.017517 67 33 5
0.847168 0.086182 -0.050323 67 33 5
-0.069641 -0.378174 0.246582 67 33 5
-0.319092 0.038300 0.072571 67 33 5
-0.459229 0.059265 0.038544 67 33 5
-0.913574 -0.014435 0.001236 67 33 5
-0.178223 -0.124268 0.138306 67 33 5
-0.780273 -0.015602 0.114441 67 33 5
0.075195 0.500488 -0.151245 67 33 5
-0.918945 -0.087646 0.218506 67 33 5
-0.017807 0.015961 -0.316406 67 33 5
-0.933594 -0.043304 0.065674 67 33 5
-0.199951 -0.360596 -0.081055 67 33 5
-0.016800 0.495361 -0.173462 67 33 5
0.849121 0.004543 0.131104 67 33 5
-0.114685 -0.506836 -0.154541 160 109 0
0.512695 0.054565 -0.061737 67 33 5
-0.141479 -0.372070 0.167847 67 33 5
-0.130981 -0.273682 -0.186401 67 33 5
0.092407 0.107361 0.134277 67 33 5
0.783203 0.024399 -0.010666 67 33 5
0.674316 0.073364 -0.206787 67 33 5
0.718750 -0.083740 0.284424 67 33 5
0.036316 0.153198 -0.224121 67 33 5
-0.137329 0.329834 -0.307129 0 0 0
0.145508 0.042908 0.134033 67 33 5
-0.118286 -0.421143 -0.103027 67 33 5
0.061890 0.464600 -0.293213 174 114 0
0.813965 0.016571 0.002512 67 33 5
-0.574219 0.043823 -0.018845 67 33 5
-0.185425 0.097595 0.052002 67 33 5
0.055145 -0.423096 0.359375 67 33 5
0.758789 0.013420 0.145996 67 33 5
0.183838 0.312500 -0.260742 0 0 0
0.084717 0.456787 -0.296143 174 114 0
0.901367 -0.034485 0.074646 67 33 5
-0.639648 0.026245 0.032440 67 33 5
-0.090332 -0.536621 -0.238159 160 109 0
0.232422 0.358887 -0.153076 67 33 5
0.087402 -0.430176 -0.016342 160 109 0
-0.037292 -0.206299 -0.267090 67 33 5
-0.192139 0.470947 -0.080872 67 33 5
-0.947754 0.013618 -0.005627 67 33 5
0.039948 -0.369629 0.309326 67 33 5
-0.244995 -0.217407 -0.095581 67 33 5
0.665527 0.056580 -0.089233 67 33 5
0.777344 0.018799 0.011253 67 33 5
0.244751 0.350098 -0.003187 67 33 5
-0.649902 0.144043 -0.164429 67 33 5
0.928711 0.030777 -0.020554 67 33 5
-0.713867 0.057739 -0.125366 67 33 5
0.278320 0.092590 -0.064453 67 33 5
0.021057 0.386719 0.166138 67 33 5
0.226318 -0.241821 -0.109558 67 33 5
-0.317871 0.110535 -0.171875 67 33 5
-0.304199 0.103638 -0.082703 67 33 5
0.219116 -0.211792 0.062805 67 33 5
0.024628 0.305420 0.177124 67 33 5
-0.967285 -0.107178 0.158325 67 33 5
-0.623535 -0.048889 0.212036 67 33 5
0.826172 -0.058136 0.192139 67 33 5
-0.767090 -0.032837 0.156494 67 33 5
-0.924805 0.069519 -0.104065 67 33 5
-0.153076 0.277832 -0.233032 0 0 0
0.712891 -0.063782 0.259521 67 33 5
-0.119446 -0.411621 0.221069 67 33 5
-0.867676 -0.089783 0.225830 67 33 5
0.123718 -0.284668 -0.178833 67 33 5
0.128418 0.154785 0.074646 67 33 5
-0.169312 0.166016 -0.065186 67 33 5
0.891602 -0.058289 0.200439 67 33 5
-0.285645 -0.101074 -0.017197 67 33 5
0.779785 0.122681 -0.133301 67 33 5
-0.185669 -0.218994 -0.197998 67 33 5
0.072144 -0.086243 0.193237 67 33 5
0.169189 0.472900 0.006554 67 33 5
-0.766602 0.124573 -0.132690 67 33 5
-0.578125 0.004761 0.148804 67 33 5
-0.221069 0.387695 -0.232788 35 13 0
-0.144653 -0.043396 -0.293457 67 33 5
-0.101562 -0.419189 0.262695 67 33 5
0.117981 -0.493164 -0.006268 160 109 0
-0.844727 -0.009369 0.158081 67 33 5
-0.730469 -0.002901 0.169556 67 33 5
-0.768066 -0.080566 0.279297 67 33 5
0.559082 0.080322 -0.246460 67 33 5
0.650879 -0.003263 0.109009 67 33 5
-0.117004 0.474121 -0.253174 174 114 0
-0.260498 0.532227 -0.031403 174 114 0
-0.906250 -0.032104 0.063660 67 33 5
-0.274658 0.017868 0.034454 67 33 5
0.142944 -0.513672 -0.071777 160 109 0
0.213867 -0.285645 -0.022522 67 33 5
0.021088 0.250244 -0.384033 129 89 20
0.639648 0.048431 -0.051270 67 33 5
0.031952 -0.507324 -0.191772 160 109 0
0.250244 0.514648 -0.044922 174 114 0
-0.233887 0.312012 0.045990 67 33 5
0.091797 0.266602 -0.276611 0 0 0
0.154053 0.422363 0.108521 67 33 5
-0.646484 0.021057 0.048035 67 33 5
-0.264893 -0.186279 -0.012459 67 33 5
-0.926270 -0.000710 0.057739 67 33 5
-0.669434 -0.053101 0.244629 67 33 5
0.894531 0.005230 0.085266 67 33 5
-0.026291 0.385254 0.165771 67 33 5
-0.364502 0.119080 -0.101074 67 33 5
-0.714844 0.039093 -0.030289 67 33 5
0.112915 0.144409 0.109192 67 33 5
0.771973 0.000863 0.072388 67 33 5
-0.293457 0.027222 0.038361 67 33 5
0.797852 0.048279 -0.136108 67 33 5
0.237305 0.230713 -0.083069 67 33 5
0.219116 0.240234 0.043396 67 33 5
-0.064026 -0.462891 -0.046814 160 109 0
0.288574 -0.012642 0.169434 67 33 5
0.119263 0.378418 0.141113 67 33 5
-0.068604 -0.026901 0.191284 67 33 5
-0.537598 0.076172 -0.212769 67 33 5
-0.189453 0.106384 0.035492 67 33 5
-0.072571 0.452393 -0.247559 67 33 5
-0.452881 -0.014069 0.152954 67 33 5
-0.067261 -0.061920 0.196167 67 33 5
0.129150 0.223999 -0.272705 35 13 0
-0.075806 -0.380127 0.218140 67 33 5
-0.122498 0.158936 -0.182007 67 33 5
-0.211914 0.360107 -0.254883 35 13 0
-0.268066 -0.015610 0.038818 67 33 5
0.804199 0.121094 -0.192871 67 33 5
0.046936 -0.506348 -0.051147 160 109 0
0.120483 0.187012 -0.274658 35 13 0
0.739746 0.129395 -0.167236 67 33 5
0.894043 0.012772 0.072205 67 33 5
0.060150 0.540039 -0.033875 67 33 5
0.176880 -0.185303 0.118225 67 33 5
-0.499268 0.141968 -0.196167 67 33 5
-0.370361 0.019974 0.079285 67 33 5
-0.217285 0.376953 -0.177490 67 33 5
0.158691 0.289551 -0.235229 171 116 0
0.823242 0.099854 -0.083984 67 33 5
0.213745 0.057892 0.058899 67 33 5
-0.747070 0.029785 0.114197 67 33 5
0.137573 0.256836 -0.263184 0 0 0
0.226074 0.307861 -0.218140 35 13 0
0.158447 -0.289307 0.060272 67 33 5
0.058258 -0.543457 -0.109619 160 109 0
-0.285400 0.105103 -0.186646 67 33 5
-0.121033 0.460693 -0.208862 67 33 5
0.439941 0.142944 -0.184082 67 33 5
-0.193115 0.227783 0.075989 67 33 5
-0.190308 0.306396 -0.248535 35 13 0
0.168335 0.310791 -0.288818 171 116 0
0.570312 0.055206 0.043640 67 33 5
0.600098 0.133545 -0.092957 67 33 5
-0.216675 -0.345215 -0.039612 67 33 5
0.225952 0.230469 -0.252686 35 13 0
-0.113525 0.308838 0.153442 67 33 5
-0.882812 0.004612 0.099487 67 33 5
0.471436 0.040863 0.079163 67 33 5
-0.112976 0.445801 0.111694 67 33 5
0.203003 0.340088 -0.247192 35 13 0
-0.031403 -0.256104 0.166626 67 33 5
-0.211304 0.111450 -0.023499 67 33 5
0.896484 -0.145752 0.285156 67 33 5
0.239868 -0.232910 -0.015823 67 33 5
-0.642578 0.062561 -0.111511 67 33 5
0.129395 0.510254 -0.088562 67 33 5
-0.093933 0.458984 -0.225342 67 33 5
0.179810 0.161255 -0.072388 67 33 5
0.024673 0.212402 -0.341064 129 89 20
-0.212891 0.288086 0.073608 67 33 5
-0.283691 -0.072021 -0.116455 67 33 5
0.633789 0.068237 -0.146606 67 33 5
-0.925781 -0.084106 0.163574 67 33 5
0.479980 0.050537 0.057068 67 33 5
-0.013992 0.486328 -0.190063 67 33 5
0.679688 0.114075 -0.048462 67 33 5
0.031586 0.264648 0.172119 67 33 5
0.317627 0.057373 -0.213379 67 33 5
0.890625 -0.125732 0.296631 67 33 5
0.797363 -0.170044 0.385498 67 33 5
0.565918 0.072144 -0.157104 67 33 5
-0.203613 0.482910 -0.147217 174 114 0
-0.124512 0.192993 -0.219360 67 33 5
0.025436 -0.208130 0.182617 67 33 5
0.556152 0.141968 -0.207397 67 33 5
-0.911621 -0.032532 0.139282 67 33 5
0.161377 0.363770 -0.271484 171 116 0
-0.123535 -0.130493 0.173828 67 33 5
0.009743 0.492920 0.109924 67 33 5
-0.141724 0.296387 -0.299561 0 0 0
0.979980 -0.026688 0.020355 67 33 5
-0.215454 -0.265137 0.019165 67 33 5
-0.015205 -0.110413 -0.314941 67 33 5
-0.554199 0.140869 -0.233398 67 33 5
0.553711 0.043060 0.068542 67 33 5
0.064758 -0.373535 0.241455 67 33 5
0.748535 0.049408 0.080627 67 33 5
0.237061 -0.010841 0.079468 67 33 5
0.245972 0.012093 0.055908 67 33 5
-0.188232 -0.007717 0.125122 67 33 5
-0.211304 0.224731 -0.160889 67 33 5
-0.280273 -0.099182 -0.104431 67 33 5
0.477783 0.070007 -0.131226 67 33 5
-0.454102 0.121216 -0.084290 67 33 5
0.612793 0.061035 -0.095886 67 33 5
-0.526367 0.141846 -0.190186 67 33 5
-0.237671 -0.207275 -0.133911 67 33 5
0.620605 -0.029236 0.202759 67 33 5
0.001636 0.154297 0.115356 67 33 5
-0.061859 0.477783 -0.196167 67 33 5
-0.228394 0.387695 0.005081 67 33 5
-0.074524 -0.296875 0.126221 67 33 5
-0.630371 -0.082520 0.264160 67 33 5
0.726562 -0.029877 0.213867 67 33 5
0.059357 0.292969 -0.290283 35 13 0
-0.074585 0.300537 -0.285156 0 0 0
-0.148682 -0.397949 0.195557 67 33 5
-0.173218 0.446533 -0.215454 174 114 0
0.139404 0.256592 0.134277 67 33 5
0.175293 0.153687 0.034485 67 33 5
-0.950684 -0.085815 0.136230 67 33 5
0.348389 0.035706 -0.011131 67 33 5
0.936035 -0.138794 0.244507 67 33 5
0.825195 -0.101990 0.267334 67 33 5
-0.254883 0.000558 -0.194946 67 33 5
0.553223 0.069763 0.017151 67 33 5
0.797363 0.063904 -0.208374 67 33 5
0.692871 0.012695 0.060516 67 33 5
-0.083557 -0.448975 0.314453 67 33 5
0.024536 0.140503 -0.225464 67 33 5
-0.186279 0.428467 -0.182129 67 33 5
0.962402 -0.092041 0.178955 67 33 5
-0.120972 -0.397217 0.251221 67 33 5
0.640137 0.076599 -0.205444 67 33 5
-0.115295 0.143677 -0.221802 67 33 5
-0.011612 0.230835 0.166626 67 33 5
-0.139648 0.166382 -0.145630 67 33 5
0.116394 -0.526855 -0.133789 160 109 0
-0.254395 0.293945 -0.099609 67 33 5
-0.881836 0.012756 0.085510 67 33 5
-0.088684 0.086487 -0.270020 67 33 5
-0.094849 0.131836 0.111206 67 33 5
0.047852 0.331787 -0.290039 35 13 0
0.746582 -0.071228 0.268066 67 33 5
0.119812 -0.366211 0.033722 67 33 5
-0.104248 0.162231 -0.225098 67 33 5
-0.489990 -0.024231 0.185059 67 33 5
-0.070862 -0.188965 0.178101 67 33 5
-0.749023 0.088867 -0.244019 67 33 5
0.198608 0.454102 -0.117737 67 33 5
0.177490 0.216797 0.092102 67 33 5
-0.114685 0.417480 0.129028 67 33 5
0.248779 0.356445 -0.016449 67 33 5
-0.554688 0.144043 -0.165649 67 33 5
-0.441895 0.120117 -0.081848 67 33 5
0.059631 0.091492 0.152100 67 33 5
-0.046478 0.539551 -0.010307 67 33 5
-0.557129 -0.023956 0.197876 67 33 5
-0.016113 0.529785 0.051331 67 33 5
-0.264648 -0.089111 -0.153809 67 33 5
-0.920898 -0.121460 0.267822 67 33 5
-0.378418 0.029419 0.101379 67 33 5
-0.903320 -0.113403 0.271973 67 33 5
0.208374 0.094910 -0.189331 67 33 5
-0.888184 -0.093445 0.256836 67 33 5
0.906250 -0.046509 0.101807 67 33 5
0.808105 0.074463 0.025986 67 33 5
-0.001133 0.540527 0.032349 67 33 5
-0.187256 -0.260986 -0.149902 67 33 5
0.162720 0.477051 0.008682 67 33 5
0.940430 0.005291 0.022461 67 33 5
0.283936 0.018219 -0.135132 67 33 5
0.090027 0.283447 -0.248535 0 0 0
-0.175903 0.196167 -0.268066 35 13 0
0.017349 0.243652 -0.353271 129 89 20
0.599121 0.088379 -0.266113 67 33 5
-0.112732 0.361816 -0.290283 171 116 0
-0.061676 0.523926 0.037811 67 33 5
0.061493 -0.376709 0.285156 67 33 5
0.279541 -0.153320 -0.042267 67 33 5
-0.272705 0.020981 0.072876 67 33 5
0.038177 0.286865 -0.335693 129 89 20
-0.495605 0.035645 0.090088 67 33 5
0.241699 0.284180 -0.255615 35 13 0
-0.076660 0.467285 -0.210815 67 33 5
-0.061188 -0.227295 -0.248901 67 33 5
0.203369 0.001832 -0.250244 67 33 5
0.778320 0.038605 -0.065613 67 33 5
-0.086731 0.435303 -0.285156 174 114 0
-0.555176 -0.045258 0.229858 67 33 5
-0.214966 -0.083557 0.120544 67 33 5
0.429688 0.084167 -0.253174 67 33 5
0.049622 0.069336 -0.291504 67 33 5
0.767578 0.038086 0.103760 67 33 5
0.150269 0.216064 0.114746 67 33 5
-0.591797 0.045715 -0.030060 67 33 5
0.194946 -0.264648 -0.132324 67 33 5
0.260498 -0.097595 -0.155884 67 33 5
0.780273 0.121582 -0.120728 67 33 5
-0.158325 -0.409424 0.182617 67 33 5
0.011406 -0.355469 0.029953 67 33 5
0.409424 0.130005 -0.210083 67 33 5
0.152954 -0.429199 -0.072327 67 33 5
-0.815430 -0.090820 0.255127 67 33 5
0.094238 0.361084 -0.236694 0 0 0
0.247192 0.286133 -0.121582 67 33 5
0.113159 0.035553 0.160889 67 33 5
-0.883789 0.051666 0.002625 67 33 5
0.252197 0.270752 -0.079834 67 33 5
0.139160 0.158813 -0.168457 67 33 5
0.042450 -0.530762 -0.232300 160 109 0
-0.878906 0.018906 0.077637 67 33 5
-0.031433 0.518066 0.071472 67 33 5
-0.656738 0.011017 0.071838 67 33 5
-0.023224 0.188965 -0.322510 129 89 20
-0.291504 -0.040161 -0.029099 67 33 5
-0.303955 0.094788 -0.060913 67 33 5
0.708496 0.051422 0.069458 67 33 5
0.620605 0.127686 -0.079468 67 33 5
-0.117126 0.255371 -0.266602 35 13 0
0.714844 -0.018311 0.194946 67 33 5
-0.178589 -0.291992 0.034180 67 33 5
0.214722 0.461914 -0.166870 174 114 0
-0.696777 0.026672 0.020782 67 33 5
0.212036 0.102844 -0.172974 67 33 5
0.562988 0.095703 -0.025894 67 33 5
0.140503 -0.375732 0.030640 67 33 5
0.201294 -0.386475 -0.031372 67 33 5
-0.359375 0.061584 0.026550 67 33 5
-0.733398 0.123962 -0.065613 67 33 5
0.828125 -0.143066 0.325439 67 33 5
0.508789 -0.022049 0.189087 67 33 5
-0.911133 -0.059845 0.184082 67 33 5
0.003319 0.145020 -0.225220 67 33 5
0.805176 0.020493 -0.006973 67 33 5
-0.017990 -0.111816 -0.314209 67 33 5
0.046906 0.520996 0.054016 67 33 5
0.078369 -0.368652 -0.115967 67 33 5
0.063049 0.439941 0.133301 67 33 5
0.223633 0.363525 -0.260986 35 13 0
0.181152 -0.137817 -0.249268 67 33 5
0.393555 0.074463 0.002960 67 33 5
-0.158081 -0.255615 0.095032 67 33 5
-0.623535 0.013382 0.071716 67 33 5
-0.492920 0.072144 0.010521 67 33 5
-0.717773 0.130493 -0.110291 67 33 5
0.800293 -0.094788 0.265137 67 33 5
-0.190186 0.448975 -0.198975 174 114 0
-0.201416 0.341064 -0.247925 35 13 0
-0.659668 0.020340 0.047485 67 33 5
0.279785 0.014648 -0.134888 67 33 5
-0.826660 -0.065430 0.253662 67 33 5
-0.580078 0.038635 -0.001283 67 33 5
-0.172974 -0.236694 0.095215 67 33 5
-0.041351 0.537598 0.007599 67 33 5
-0.031799 -0.304199 0.201538 67 33 5
-0.807129 -0.148560 0.345459 67 33 5
-0.088562 -0.120728 -0.301025 67 33 5
0.891113 -0.086670 0.204834 67 33 5
-0.885254 0.080322 -0.159302 67 33 5
0.857910 0.099121 -0.139771 67 33 5
-0.290527 -0.006878 -0.013649 67 33 5
-0.111755 -0.096069 0.184937 67 33 5
0.708984 0.072205 -0.220215 67 33 5
0.035156 0.161133 0.142822 67 33 5
0.103210 -0.254883 0.133423 67 33 5
-0.039459 0.327881 -0.295410 35 13 0
0.168945 0.478760 -0.010727 67 33 5
0.253906 0.093323 -0.075989 67 33 5
0.872559 0.019318 -0.062012 67 33 5
0.495117 0.050415 -0.043549 67 33 5
-0.053040 0.209717 0.148926 67 33 5
-0.829102 0.099487 -0.091492 67 33 5
0.045685 -0.323242 0.199097 67 33 5
0.054352 -0.424316 0.361816 67 33 5
0.237671 0.276855 0.022690 67 33 5
0.238525 0.376953 -0.101807 67 33 5
-0.661621 -0.106384 0.300537 67 33 5
-0.115967 -0.527832 -0.145508 160 109 0
0.575195 0.008789 0.091736 67 33 5
-0.211060 -0.263428 0.034210 67 33 5
0.087708 -0.544922 -0.009918 160 109 0
-0.051819 -0.155518 0.192383 67 33 5
-0.067627 0.538086 -0.029739 67 33 5
0.216797 -0.278076 -0.060577 67 33 5
-0.673340 0.135986 -0.091797 67 33 5
-0.747559 -0.135132 0.342529 67 33 5
-0.076233 0.313477 -0.271973 171 116 0
0.206909 -0.336670 -0.009056 67 33 5
-0.215454 0.430176 -0.098511 67 33 5
0.737305 0.086731 0.008720 67 33 5
-0.193115 0.399170 0.072937 67 33 5
-0.139771 0.344727 0.138916 67 33 5
0.016571 0.239990 -0.389893 129 89 20
0.026443 -0.293457 0.185181 67 33 5
0.923828 -0.023941 0.107788 67 33 5
0.062561 -0.461670 -0.047119 160 109 0
0.055298 0.185547 0.137695 67 33 5
-0.279541 -0.146729 -0.019516 67 33 5
-0.083618 -0.546875 -0.057495 160 109 0
0.256104 -0.199707 -0.066467 67 33 5
-0.217896 0.421387 -0.007050 67 33 5
-0.758301 0.053253 -0.122925 67 33 5
0.719727 0.094604 -0.008583 67 33 5
-0.512695 0.080200 -0.249634 67 33 5
0.759766 -0.026489 0.208496 67 33 5
0.223999 0.391602 0.007450 67 33 5
-0.895508 -0.126465 0.295166 67 33 5
0.435547 0.083862 -0.010666 67 33 5
0.185303 0.455078 -0.227905 174 114 0
0.962402 -0.056885 0.058502 67 33 5
-0.522461 0.067261 -0.118530 67 33 5
-0.079529 -0.425781 -0.016220 67 33 5
-0.048309 -0.311035 -0.185303 67 33 5
0.082703 -0.404541 0.017639 67 33 5
0.134277 0.266357 -0.252197 0 0 0
0.012932 -0.333008 0.186035 67 33 5
0.728516 0.063232 -0.175781 67 33 5
0.251465 0.292969 -0.006794 67 33 5
0.502930 -0.003389 0.158447 67 33 5
0.014137 -0.421631 0.356445 67 33 5
-0.881836 -0.026047 0.069946 67 33 5
-0.663086 0.067261 -0.158325 67 33 5
-0.734375 0.066223 0.049377 67 33 5
0.072327 -0.536133 -0.001908 160 109 0
0.122803 -0.051483 -0.305664 67 33 5
-0.167969 -0.048553 -0.275146 67 33 5
-0.067322 -0.543457 -0.107544 160 109 0
0.912109 -0.084045 0.218750 67 33 5
-0.398193 0.107300 -0.061279 67 33 5
-0.149902 -0.396484 0.170288 67 33 5
-0.931152 -0.126709 0.265625 67 33 5
-0.073120 -0.408447 0.348877 67 33 5
-0.094788 0.277344 0.158081 67 33 5
-0.089539 -0.547363 -0.039886 160 109 0
-0.759766 0.124084 -0.101257 67 33 5
-0.549316 0.141357 -0.215576 67 33 5
-0.807129 0.098633 -0.039307 67 33 5
0.207153 0.115417 -0.149902 67 33 5
-0.196411 0.081116 0.056183 67 33 5
-0.008034 -0.189209 -0.280762 67 33 5
0.039978 -0.393799 0.312012 67 33 5
0.238159 0.345703 -0.253174 35 13 0
0.036377 0.220581 -0.307617 129 89 20
-0.465820 0.053406 -0.056305 67 33 5
-0.487793 0.048767 -0.036285 67 33 5
-0.354736 0.014259 0.129150 67 33 5
-0.132935 -0.426270 -0.095520 67 33 5
0.111023 -0.096252 -0.300537 67 33 5
-0.073364 -0.423096 -0.018295 67 33 5
0.061859 -0.385986 0.299561 67 33 5
0.083252 -0.490234 -0.005482 160 109 0
-0.253418 -0.200562 -0.091675 67 33 5
0.157471 0.140137 0.078430 67 33 5
-0.095215 0.239746 0.149170 67 33 5
0.502441 0.083374 -0.007542 67 33 5
0.538086 0.054626 -0.062347 67 33 5
0.923828 -0.122681 0.230469 67 33 5
0.239746 0.336182 0.016037 67 33 5
-0.809082 -0.025681 0.198242 67 33 5
0.066345 -0.436523 -0.034821 160 109 0
0.175537 -0.302979 -0.119507 67 33 5
-0.519531 -0.010971 0.143555 67 33 5
-0.135498 0.510742 -0.062195 67 33 5
-0.174683 0.162354 -0.045837 67 33 5
-0.019257 -0.333740 0.199219 67 33 5
0.047974 0.499756 -0.160156 67 33 5
-0.190918 0.038757 0.100098 67 33 5
-0.105896 0.187134 -0.268311 35 13 0
-0.112793 0.056580 -0.287354 67 33 5
-0.879883 0.082764 -0.082703 67 33 5
0.077209 0.052460 -0.297607 67 33 5
0.253906 -0.200317 -0.000906 67 33 5
-0.434326 0.031525 0.045898 67 33 5
0.811035 -0.092957 0.291748 67 33 5
-0.876465 0.036987 0.047394 67 33 5
-0.543457 0.012596 0.134888 67 33 5
-0.589844 0.109314 -0.279053 67 33 5
-0.133789 -0.242432 -0.211548 67 33 5
-0.313477 0.008102 0.106201 67 33 5
0.232056 0.504883 -0.148804 174 114 0
0.288818 -0.058563 -0.087402 67 33 5
0.093628 -0.544434 -0.079773 160 109 0
0.124695 -0.166138 0.161987 67 33 5
0.373779 0.033478 0.029922 67 33 5
-0.247437 0.106323 -0.144043 67 33 5
-0.485840 -0.005638 0.147827 67 33 5
-0.479736 0.052368 0.052979 67 33 5
0.118896 -0.399902 0.184204 67 33 5
-0.131348 -0.409668 -0.111267 67 33 5
-0.142334 0.140503 0.092529 67 33 5
-0.232788 0.229858 -0.112427 67 33 5
-0.141846 -0.368896 0.031616 67 33 5
0.499756 0.097839 -0.271484 67 33 5
-0.443848 0.000482 0.122253 67 33 5
-0.038483 0.535645 -0.083435 67 33 5
0.009155 -0.315186 0.189453 67 33 5
0.299316 0.109558 -0.167603 67 33 5
-0.914062 0.002592 -0.057465 67 33 5
-0.204712 0.454590 -0.074158 67 33 5
0.428223 0.056366 -0.069946 67 33 5
-0.829102 0.113770 -0.181030 67 33 5
-0.548340 0.075928 -0.192749 67 33 5
-0.061981 -0.348633 0.166626 67 33 5
0.887695 0.066284 -0.040100 67 33 5
-0.216309 0.091309 0.010780 67 33 5
0.122437 0.002455 0.166382 67 33 5
-0.295898 0.026581 -0.159424 67 33 5
-0.181152 -0.413330 -0.037659 67 33 5
-0.801270 0.052948 0.079407 67 33 5
0.183228 0.370361 0.106201 67 33 5
-0.039948 -0.329834 0.242798 67 33 5
-0.181152 0.280518 -0.256348 0 0 0
-0.368408 0.123047 -0.182007 67 33 5
-0.113281 -0.316895 -0.151611 67 33 5
0.605957 0.092163 -0.014221 67 33 5
0.029953 0.454102 -0.284424 174 114 0
-0.250000 -0.182983 -0.134644 67 33 5
-0.125122 -0.313232 0.059662 67 33 5
-0.986816 -0.061340 0.061401 67 33 5
-0.573242 0.116516 -0.064697 67 33 5
0.231812 0.012535 0.070923 67 33 5
0.175903 -0.311523 0.019516 67 33 5
-0.747559 -0.149658 0.362305 67 33 5
-0.349365 0.052216 0.046417 67 33 5
0.165649 -0.288818 0.052216 67 33 5
-0.679199 -0.090332 0.273193 67 33 5
-0.203613 0.380371 0.069275 67 33 5
0.858398 -0.046356 0.214966 67 33 5
0.080017 0.121582 -0.232910 67 33 5
0.737793 -0.018875 0.130371 67 33 5
-0.152222 -0.530762 -0.109802 160 109 0
0.008667 -0.338867 0.227295 67 33 5
0.207153 0.236084 -0.219116 35 13 0
0.127808 0.256104 -0.261230 35 13 0
0.060425 -0.330322 0.122559 67 33 5
0.176392 0.152100 -0.018097 67 33 5
-0.193848 0.426514 -0.171143 67 33 5
0.159180 0.106445 0.077515 67 33 5
-0.153687 -0.345215 -0.127930 67 33 5
-0.141846 0.503418 -0.020950 67 33 5
0.362305 0.037109 -0.151733 67 33 5
-0.197510 -0.342285 -0.099915 67 33 5
-0.083008 -0.096497 -0.305176 67 33 5
0.382080 0.044647 -0.165527 67 33 5
0.047363 -0.396240 0.315918 67 33 5
0.031342 -0.517578 -0.179810 160 109 0
0.203735 0.459717 -0.140381 174 114 0
0.197998 -0.324463 0.006954 67 33 5
-0.984863 -0.058136 0.087891 67 33 5
-0.033386 -0.339355 0.049988 67 33 5
-0.904785 -0.121887 0.281982 67 33 5
-0.830566 -0.084045 0.276367 67 33 5
-0.190186 -0.284912 0.031403 67 33 5
-0.150269 0.269287 -0.256104 0 0 0
-0.009911 0.347656 -0.340088 129 89 20
-0.816895 0.111816 -0.137695 67 33 5
-0.055664 -0.052551 0.199097 67 33 5
0.128174 -0.116150 -0.294678 67 33 5
0.664062 0.137451 -0.251953 67 33 5
0.289795 -0.048065 -0.024170 67 33 5
0.423096 0.139038 -0.180298 67 33 5
0.060028 -0.271240 0.153320 67 33 5
-0.411621 -0.025558 0.189331 67 33 5
-0.025681 0.070496 0.166626 67 33 5
0.057373 -0.317627 -0.177490 67 33 5
-0.736816 0.065979 -0.198242 67 33 5
0.210815 0.255859 -0.210205 67 33 5
0.119019 -0.384521 0.166138 67 33 5
-0.951660 -0.136230 0.244873 67 33 5
-0.548828 0.041443 -0.006443 67 33 5
0.258057 -0.123535 -0.153564 67 33 5
0.090393 -0.131104 0.186646 67 33 5
-0.437012 0.094116 -0.028152 67 33 5
-0.476318 0.042236 0.076172 67 33 5
-0.282959 -0.005920 0.158081 67 33 5
-0.485596 0.147705 -0.156860 67 33 5
0.719238 -0.051208 0.212036 67 33 5
-0.546387 0.141357 -0.215698 67 33 5
0.035339 -0.312988 0.167969 67 33 5
0.215698 -0.051208 -0.237305 67 33 5
0.797363 -0.041016 0.224609 67 33 5
0.130859 0.261719 -0.271484 0 0 0
-0.932617 -0.012329 -0.031143 67 33 5
0.001925 -0.373047 0.279541 67 33 5
0.616699 0.016266 0.125000 67 33 5
0.556152 0.015129 0.130737 67 33 5
-0.219727 0.465820 -0.147827 174 114 0
0.087830 -0.544922 -0.110901 160 109 0
-0.675293 0.075745 0.023743 67 33 5
0.886719 -0.037170 0.171265 67 33 5
-0.129639 0.299316 -0.302979 0 0 0
-0.153442 -0.521973 -0.122192 160 109 0
-0.511230 0.058319 -0.078064 67 33 5
0.622559 0.043793 0.069336 67 33 5
-0.219116 0.169800 -0.025955 67 33 5
0.786621 0.013542 0.144531 67 33 5
0.258545 0.062866 -0.000160 67 33 5
-0.149048 0.331543 -0.305664 0 0 0
-0.172119 -0.296143 -0.132812 67 33 5
0.174316 0.160034 -0.034058 67 33 5
-0.193359 0.172729 -0.144287 67 33 5
0.108704 -0.512695 -0.221924 160 109 0
0.203247 0.491455 -0.216309 174 114 0
0.447510 0.149536 -0.152954 67 33 5
0.765625 0.069641 0.045502 67 33 5
-0.068848 -0.343506 0.158691 67 33 5
-0.035706 0.524902 0.051666 67 33 5
0.777832 -0.082153 0.248291 67 33 5
0.157227 0.312988 -0.298584 1 1 0
-0.050354 -0.317383 -0.179321 67 33 5
0.119019 -0.377686 -0.122070 67 33 5
0.729980 -0.037079 0.175415 67 33 5
0.763672 0.084778 0.015022 67 33 5
0.075562 0.343506 -0.284668 0 0 0
-0.092712 0.281494 -0.266846 171 116 0
-0.771484 0.077576 0.030029 67 33 5
0.322510 0.026260 0.052155 67 33 5
-0.120789 0.163818 -0.216187 67 33 5
-0.595703 0.144775 -0.169067 67 33 5
0.282715 0.098022 -0.075623 67 33 5
-0.212769 0.402100 -0.240112 35 13 0
-0.703125 0.065002 -0.169922 67 33 5
0.208740 0.218018 -0.154175 67 33 5
0.024490 -0.350098 0.196899 67 33 5
-0.305908 -0.012573 0.170166 67 33 5
-0.304443 0.068665 0.001030 67 33 5
0.372070 0.131958 -0.139526 67 33 5
-0.047760 -0.517090 -0.044647 160 109 0
0.086426 -0.331299 -0.147583 67 33 5
0.043488 -0.388184 0.338623 67 33 5
-0.201660 0.350098 0.084717 67 33 5
0.193481 0.201782 0.053467 67 33 5
0.680664 0.079407 -0.241089 67 33 5
-0.639648 -0.046387 0.230835 67 33 5
-0.175049 0.151367 -0.121521 67 33 5
-0.819336 -0.070679 0.217529 67 33 5
-0.751953 -0.142456 0.364502 67 33 5
0.230835 0.400391 -0.023224 67 33 5
-0.771973 0.059204 -0.176270 67 33 5
-0.922363 -0.030167 0.124084 67 33 5
-0.103210 0.245361 -0.274902 35 13 0
-0.229004 0.270264 0.045990 67 33 5
-0.148071 -0.528320 -0.067993 160 109 0
-0.045959 -0.343018 0.177979 67 33 5
0.077209 -0.419434 -0.094666 67 33 5
-0.749512 0.109680 -0.241455 67 33 5
0.196533 0.444336 0.008179 67 33 5
0.229492 0.316895 -0.219849 35 13 0
0.058197 -0.340820 0.254883 67 33 5
0.212158 0.210083 -0.249512 35 13 0
0.150757 -0.416016 -0.097290 67 33 5
0.026260 0.544922 -0.042572 67 33 5
0.395752 0.123230 -0.225952 67 33 5
-0.187378 0.428467 -0.180542 67 33 5
0.577148 0.146118 -0.143555 67 33 5
-0.415283 0.138062 -0.171143 67 33 5
0.677246 -0.076477 0.275391 67 33 5
-0.844238 -0.035339 0.128784 67 33 5
0.247070 -0.168457 0.046539 67 33 5
-0.083679 -0.513184 -0.178955 160 109 0
0.235596 0.275391 -0.151611 67 33 5
-0.152954 -0.223511 0.118591 67 33 5
0.417969 0.054535 0.049927 67 33 5
0.369141 0.039948 -0.164429 67 33 5
0.264404 -0.052490 0.049744 67 33 5
0.128540 -0.397461 0.201050 67 33 5
0.098633 -0.384766 0.196411 67 33 5
-0.404297 -0.013191 0.149292 67 33 5
0.824219 -0.143188 0.327881 67 33 5
-0.256348 0.267822 -0.025482 67 33 5
-0.644531 0.005638 0.087708 67 33 5
0.114075 -0.516113 -0.158936 160 109 0
0.565918 0.080566 -0.247681 67 33 5
0.235107 0.382812 -0.106750 67 33 5
0.788574 -0.143433 0.344727 67 33 5
0.270264 -0.141602 -0.121094 67 33 5
-0.650879 0.018372 0.122070 67 33 5
0.196045 0.113831 -0.174438 67 33 5
-0.189941 -0.052673 0.140991 67 33 5
-0.680176 0.046509 -0.051910 67 33 5
-0.399170 0.121094 -0.094727 67 33 5
0.010773 0.122803 0.137573 67 33 5
-0.852051 0.031738 0.080566 67 33 5
0.084534 0.159302 -0.192871 67 33 5
0.132202 -0.543457 -0.084595 160 109 0
0.251465 0.291504 -0.106445 67 33 5
-0.140503 -0.199585 -0.239624 67 33 5
-0.069092 -0.376709 0.216064 67 33 5
-0.270264 -0.175415 -0.013344 67 33 5
-0.544434 0.084106 -0.007538 67 33 5
-0.399170 0.138794 -0.140991 67 33 5
-0.155640 0.486572 -0.124695 67 33 5
0.726562 0.083801 0.013542 67 33 5
-0.801270 -0.096008 0.298096 67 33 5
-0.063538 -0.426514 0.317383 67 33 5
0.860352 0.024841 0.083374 67 33 5
-0.904297 -0.006779 -0.012863 67 33 5
-0.161133 0.276611 -0.248413 0 0 0
-0.096375 -0.307129 0.089783 67 33 5
0.607422 -0.033966 0.208252 67 33 5
0.796387 -0.105408 0.287109 67 33 5
0.933594 -0.091675 0.167358 67 33 5
-0.746582 -0.007751 0.181396 67 33 5
0.134644 -0.216553 -0.230957 67 33 5
-0.050110 0.009506 0.184570 67 33 5
-0.176025 -0.090820 -0.262451 67 33 5
0.196167 0.237061 0.074524 67 33 5
-0.144409 -0.065491 0.168091 67 33 5
0.267578 -0.132446 0.012291 67 33 5
0.921875 0.068420 -0.114929 67 33 5
0.078552 0.117676 0.130615 67 33 5
0.183105 0.442871 0.039612 67 33 5
-0.102417 -0.546875 -0.016541 160 109 0
0.075134 0.310547 -0.253662 171 116 0
-0.230835 0.215942 -0.086975 67 33 5
0.222778 0.001175 -0.232056 67 33 5
0.246338 0.328613 0.002512 67 33 5
-0.054901 0.232422 0.156860 67 33 5
0.756348 0.123779 -0.087585 67 33 5
-0.427734 0.069458 -0.227905 67 33 5
-0.046387 -0.363525 -0.111328 67 33 5
0.301514 0.104065 -0.202393 67 33 5
0.765137 0.042450 -0.072327 67 33 5
0.235107 0.249268 -0.252441 35 13 0
-0.550781 0.140503 -0.239258 67 33 5
-0.644531 -0.073120 0.250977 67 33 5
0.548828 0.021362 0.059082 67 33 5
0.209351 0.331055 0.074463 67 33 5
-0.166748 0.476807 0.003628 67 33 5
0.882324 0.008926 -0.039459 67 33 5
0.066284 -0.080322 -0.310059 67 33 5
0.807617 -0.068481 0.216431 67 33 5
-0.068970 -0.147095 0.190674 67 33 5
0.427490 0.002949 0.117371 67 33 5
-0.606445 0.143921 -0.200073 67 33 5
-0.246338 0.071289 -0.020813 67 33 5
0.045380 0.145142 -0.217285 67 33 5
-0.240479 0.313965 -0.151855 67 33 5
-0.955566 -0.072571 0.155518 67 33 5
0.107727 -0.097900 0.185303 67 33 5
0.175903 0.154297 -0.082397 67 33 5
-0.716797 0.002298 0.157471 67 33 5
0.082092 -0.522461 -0.233643 160 109 0
0.013618 -0.383301 -0.063416 67 33 5
0.902832 -0.059143 0.140503 67 33 5
-0.766113 -0.157959 0.381348 67 33 5
-0.013580 -0.443359 0.404053 67 33 5
-0.620605 0.023727 0.109924 67 33 5
-0.221802 0.202393 -0.006119 67 33 5
-0.968750 -0.093872 0.175171 67 33 5
-0.484375 0.049469 0.059265 67 33 5
0.212402 -0.198120 -0.176147 67 33 5
-0.039764 -0.349609 0.218628 67 33 5
0.236816 -0.104919 -0.194946 67 33 5
0.009407 -0.104126 0.205444 67 33 5
0.307129 0.117859 -0.120972 67 33 5
-0.889648 -0.079529 0.196655 67 33 5
-0.167969 -0.002100 0.136230 67 33 5
0.008629 0.183960 0.150635 67 33 5
0.190063 0.186279 0.043304 67 33 5
-0.666016 0.080811 -0.242798 67 33 5
-0.793457 -0.058563 0.202393 67 33 5
0.057068 0.468262 -0.216553 67 33 5
-0.028610 0.215210 -0.237793 129 89 20
0.704590 0.133057 -0.132324 67 33 5
0.349854 0.126099 -0.137817 67 33 5
0.733398 0.101990 -0.022202 67 33 5
0.098755 0.276367 -0.258545 171 116 0
-0.234741 0.212280 -0.058075 67 33 5
0.226929 0.218750 -0.000807 67 33 5
-0.426758 0.031433 0.047607 67 33 5
-0.529297 0.060120 -0.086121 67 33 5
0.513672 0.047485 0.062012 67 33 5
0.214966 0.229736 -0.229980 35 13 0
-0.140137 -0.538574 -0.152222 160 109 0
0.507812 0.072266 -0.151855 67 33 5
-0.238647 0.108154 -0.129883 67 33 5
-0.002993 -0.182495 -0.285156 67 33 5
0.641602 0.039337 -0.015930 67 33 5
-0.826172 0.105225 -0.119019 67 33 5
-0.160400 -0.425049 -0.068176 67 33 5
-0.898438 -0.054596 0.136353 67 33 5
0.163940 0.268066 -0.256104 0 0 0
-0.859375 0.079773 -0.032135 67 33 5
-0.187866 0.050842 0.095337 67 33 5
-0.773926 0.006344 0.054382 67 33 5
0.211426 -0.169678 -0.203613 67 33 5
0.668457 -0.028000 0.165283 67 33 5
0.645508 0.100952 -0.274658 67 33 5
0.100403 -0.380859 0.207764 67 33 5
-0.883789 -0.035431 0.172607 67 33 5
0.168457 0.154419 -0.123718 67 33 5
0.094482 -0.370605 0.195801 67 33 5
-0.850098 0.047485 0.054321 67 33 5
0.175415 0.153442 -0.018082 67 33 5
-0.461670 0.031982 0.039581 67 33 5
-0.027725 -0.163330 -0.290771 67 33 5
-0.296631 0.014885 -0.039429 67 33 5
0.103516 0.464355 -0.204468 67 33 5
-0.942871 -0.023712 -0.005722 67 33 5
-0.365967 0.038788 -0.015060 67 33 5
-0.184326 -0.230103 0.088989 67 33 5
0.126831 0.075134 -0.265381 67 33 5
0.651855 0.143799 -0.183472 67 33 5
-0.567871 0.050842 -0.046021 67 33 5
0.601562 0.009155 0.139648 67 33 5
0.142578 -0.530762 -0.219604 160 109 0
-0.067810 0.190186 -0.248657 67 33 5
-0.166626 -0.424072 -0.037262 67 33 5
0.067627 0.469971 -0.208252 67 33 5
-0.089050 -0.387207 0.222412 67 33 5
-0.036011 0.121033 -0.242920 67 33 5
-0.455566 0.140137 -0.222412 67 33 5
0.050598 -0.345703 0.037048 67 33 5
-0.096619 -0.525391 -0.196533 160 109 0
-0.919434 -0.028046 0.035889 67 33 5
0.016495 -0.351074 -0.139038 67 33 5
-0.028107 0.160278 -0.207153 67 33 5
-0.207520 0.469238 -0.115845 174 114 0
-0.150879 -0.210205 0.126587 67 33 5
0.151733 -0.062103 -0.284180 67 33 5
-0.772461 -0.172974 0.388428 67 33 5
-0.241455 0.338135 0.014763 67 33 5
0.171021 0.310303 0.126221 67 33 5
-0.189697 0.145386 -0.140869 67 33 5
-0.672852 0.073486 -0.205688 67 33 5
-0.131226 0.088684 -0.246948 67 33 5
0.079346 -0.249390 -0.229858 67 33 5
0.479492 0.036407 0.021927 67 33 5
0.845215 -0.032959 0.118469 67 33 5
-0.166626 -0.123352 -0.265381 67 33 5
0.006462 -0.220093 0.183350 67 33 5
-0.136108 0.192139 -0.212158 67 33 5
-0.142944 -0.106934 -0.286133 67 33 5
-0.170410 0.434326 -0.203003 67 33 5
0.040466 0.454590 -0.272949 174 114 0
0.569336 -0.025818 0.202393 67 33 5
0.817871 0.094727 -0.041962 67 33 5
0.648438 0.063843 -0.125977 67 33 5
-0.990723 -0.075500 0.111145 67 33 5
-0.763672 0.126831 -0.175415 67 33 5
0.280273 -0.131836 -0.019501 67 33 5
-0.779785 -0.002914 0.172119 67 33 5
0.141113 0.364258 -0.288574 171 116 0
0.136597 0.166504 -0.206787 67 33 5
-0.117859 0.235596 0.137329 67 33 5
-0.072388 0.100586 -0.257324 67 33 5
0.989746 -0.085632 0.110229 67 33 5
-0.106323 -0.507324 -0.227173 160 109 0
0.157959 0.148193 -0.174805 67 33 5
0.578125 -0.025436 0.202271 67 33 5
0.077271 -0.369385 0.230225 67 33 5
-0.261230 0.292480 -0.028641 67 33 5
0.886230 -0.042511 0.108582 67 33 5
-0.301514 0.015915 0.078674 67 33 5
-0.547852 0.074036 -0.171875 67 33 5
-0.005627 -0.393066 0.346191 67 33 5
0.033142 -0.330322 0.193604 67 33 5
0.260010 -0.070496 -0.163940 67 33 5
0.825684 0.029800 -0.065674 67 33 5
0.106262 0.499512 0.064941 67 33 5
0.378174 0.029465 0.051788 67 33 5
-0.460205 0.002377 0.150635 67 33 5
-0.661621 0.070251 0.031097 67 33 5
-0.207642 -0.366943 -0.024567 67 33 5
-0.219360 0.434570 -0.041138 67 33 5
-0.151978 -0.389893 -0.123230 67 33 5
-0.108276 -0.546875 -0.023575 160 109 0
0.230347 0.408936 -0.054443 67 33 5
0.354736 0.104492 -0.067688 67 33 5
-0.041931 0.367432 0.168213 67 33 5
-0.278564 -0.074097 -0.134277 67 33 5
0.031555 -0.437744 0.403076 67 33 5
0.145020 -0.316162 0.038300 67 33 5
-0.061798 -0.483643 -0.068359 160 109 0
0.456787 0.091858 -0.023468 67 33 5
-0.059875 0.161987 0.135376 67 33 5
0.307861 0.007530 0.136597 67 33 5
-0.003736 0.241089 -0.333252 129 89 20
-0.105591 0.100647 -0.246094 67 33 5
0.697266 0.062500 -0.150024 67 33 5
0.787109 0.042542 0.099731 67 33 5
-0.652832 0.143921 -0.188232 67 33 5
-0.539062 0.047241 -0.030212 67 33 5
-0.832031 -0.056519 0.238525 67 33 5
0.010048 0.226440 -0.357666 129 89 20
0.481201 0.058685 -0.080078 67 33 5
-0.854004 -0.038544 0.204224 67 33 5
0.801758 0.122253 -0.188721 67 33 5
-0.877930 -0.013908 0.138306 67 33 5
0.503418 0.102417 -0.040588 67 33 5
-0.222046 0.020981 0.080444 67 33 5
-0.168579 0.310059 -0.290283 171 116 0
0.830078 -0.096130 0.255371 67 33 5
-0.125366 -0.545898 -0.018555 160 109 0
0.785156 0.092407 -0.006401 67 33 5
0.135864 0.132324 -0.193359 67 33 5
-0.707031 0.067871 -0.190918 67 33 5
0.514160 0.049591 0.057190 67 33 5
0.100647 0.520508 -0.082153 67 33 5
-0.147583 -0.083801 -0.285645 67 33 5
-0.889160 -0.043396 0.109863 67 33 5
0.851562 0.089478 -0.075378 67 33 5
-0.074219 -0.330566 0.155029 67 33 5
0.099121 0.525391 -0.028793 67 33 5
0.229004 0.204346 -0.055664 67 33 5
0.083313 0.525391 -0.084290 67 33 5
-0.687500 -0.121948 0.320801 67 33 5
0.119080 0.306641 -0.305420 0 0 0
-0.544922 -0.018524 0.159424 67 33 5
0.042908 -0.523926 -0.053223 160 109 0
0.683105 0.136597 -0.109253 67 33 5
-0.042999 -0.326904 0.102539 67 33 5
-0.250732 -0.161133 -0.151611 67 33 5
-0.446289 0.015121 0.089661 67 33 5
0.234985 0.324951 -0.260742 35 13 0
-0.034668 -0.343750 0.233765 67 33 5
-0.225342 0.478760 -0.112549 174 114 0
-0.858398 0.067627 0.006912 67 33 5
-0.834961 -0.172119 0.363281 67 33 5
-0.103088 -0.444336 0.324219 67 33 5
-0.054718 -0.224121 -0.252197 67 33 5
0.222412 0.115906 -0.117676 67 33 5
-0.672852 -0.122192 0.322754 67 33 5
0.394531 0.050446 -0.116699 67 33 5
-0.656250 0.061798 -0.115540 67 33 5
-0.071899 -0.225708 -0.248169 67 33 5
0.491455 0.095215 -0.270508 67 33 5
-0.047058 0.457275 -0.239624 67 33 5
0.799316 0.110413 -0.094727 67 33 5
-0.078857 0.337158 -0.242920 0 0 0
0.125122 -0.221924 0.138428 67 33 5
-0.460693 0.103088 -0.267822 67 33 5
-0.138062 -0.102783 -0.290527 67 33 5
0.048462 -0.340820 0.261719 67 33 5
0.120544 0.421875 -0.266846 35 13 0
-0.199829 0.025970 0.099365 67 33 5
0.463379 0.073181 -0.177979 67 33 5
-0.184448 -0.285156 -0.128418 67 33 5
0.947754 -0.038483 0.033539 67 33 5
0.131592 0.501953 -0.115967 67 33 5
-0.448486 0.079773 -0.260010 67 33 5
0.005005 0.200928 -0.278320 129 89 20
0.776855 -0.169312 0.391846 67 33 5
-0.709961 -0.051147 0.218872 67 33 5
-0.279785 0.030533 0.083252 67 33 5
-0.299316 0.019302 0.005432 67 33 5
0.090637 -0.244507 0.146729 67 33 5
0.260498 -0.161865 -0.133301 67 33 5
0.132324 0.397705 -0.259033 35 13 0
0.924805 0.017502 -0.094788 67 33 5
-0.572754 0.076111 -0.192993 67 33 5
-0.011078 0.110840 -0.258789 67 33 5
0.206421 -0.117004 0.118408 67 33 5
-0.345215 0.048248 0.054657 67 33 5
0.020309 -0.422852 0.359131 67 33 5
0.232666 -0.097046 -0.204224 67 33 5
0.730957 0.018509 0.131348 67 33 5
0.824707 -0.015549 0.086304 67 33 5
-0.323730 -0.013367 0.169678 67 33 5
-0.048706 -0.506836 -0.101929 160 109 0
-0.034698 0.491699 -0.177246 67 33 5
0.029999 0.077026 0.163208 67 33 5
-0.613281 -0.010727 0.134888 67 33 5
-0.064331 -0.131226 0.192505 67 33 5
-0.290039 0.046631 -0.218018 67 33 5
0.153442 -0.245605 0.103638 67 33 5
-0.447021 0.066895 -0.117493 67 33 5
0.385254 0.011147 0.117432 67 33 5
0.218872 -0.226196 -0.142090 67 33 5
0.117981 0.307861 -0.305420 0 0 0
-0.917969 -0.010513 -0.018204 67 33 5
-0.642090 0.061768 -0.105408 67 33 5
-0.073975 -0.357910 0.187134 67 33 5
0.271484 -0.000676 0.144043 67 33 5
-0.234253 0.509766 -0.069153 174 114 0
-0.563477 0.038300 0.001787 67 33 5
0.096375 -0.539062 0.003994 160 109 0
-0.045593 -0.098145 0.198242 67 33 5
-0.184570 0.449951 -0.214600 174 114 0
0.614746 0.146362 -0.148682 67 33 5
-0.535645 0.140259 -0.233521 67 33 5
-0.772461 -0.006035 0.092712 67 33 5
0.009491 0.222046 -0.320312 129 89 20
0.660645 0.068115 -0.163574 67 33 5
-0.729004 0.099670 -0.018143 67 33 5
0.450928 0.014656 0.129150 67 33 5
0.088623 -0.122681 -0.300537 67 33 5
0.099182 -0.495605 -0.171509 160 109 0
-0.477783 0.138794 -0.226562 67 33 5
-0.725586 -0.112366 0.316406 67 33 5
-0.639160 -0.008339 0.124390 67 33 5
-0.762207 -0.161011 0.386719 67 33 5
-0.099915 -0.334717 -0.134399 67 33 5
0.012642 -0.195435 -0.276611 67 33 5
-0.094421 -0.102783 0.187988 67 33 5
-0.618652 0.034332 0.008263 67 33 5
-0.451416 0.070740 -0.134888 67 33 5
-0.837891 -0.173950 0.363770 67 33 5
0.602051 -0.088623 0.273682 67 33 5
0.627930 -0.007286 0.142944 67 33 5
-0.356689 0.016113 0.125610 67 33 5
-0.521484 0.141724 -0.122131 67 33 5
-0.939941 -0.120117 0.247437 67 33 5
-0.161743 -0.255859 -0.183228 67 33 5
-0.350586 0.081177 -0.216309 67 33 5
-0.112671 -0.505859 0.005108 160 109 0
0.034393 -0.432129 0.400635 67 33 5
0.148682 -0.500000 -0.182007 160 109 0
-0.575195 0.069580 -0.135376 67 33 5
-0.804688 -0.131958 0.338867 67 33 5
-0.072449 -0.307129 -0.184692 67 33 5
0.868164 0.003283 0.114380 67 33 5
0.543945 0.003511 0.149414 67 33 5
0.227905 -0.270508 -0.040436 67 33 5
-0.091492 -0.421875 0.299316 67 33 5
-0.176636 0.123840 -0.181396 67 33 5
0.232788 0.059509 0.027069 67 33 5
-0.138428 -0.507812 -0.191650 160 109 0
0.090210 -0.527344 -0.210205 160 109 0
0.728516 0.132446 -0.222046 67 33 5
-0.482666 0.108276 -0.267334 67 33 5
-0.206543 0.443359 -0.114807 67 33 5
0.055023 0.091309 0.152954 67 33 5
-0.203125 0.457031 -0.068359 67 33 5
0.084473 -0.206055 -0.259033 67 33 5
0.212158 0.428955 -0.006325 67 33 5
-0.138794 -0.308594 0.054840 67 33 5
0.871094 -0.151978 0.312012 67 33 5
0.724609 0.133301 -0.208496 67 33 5
-0.107483 -0.357422 0.139160 67 33 5
0.697266 0.111877 -0.043396 67 33 5
0.783203 0.051300 -0.138550 67 33 5
-0.074097 0.212402 -0.263428 35 13 0
-0.034637 -0.331787 0.061768 67 33 5
-0.678223 0.062683 -0.137451 67 33 5
0.223999 0.289062 -0.189941 67 33 5
-0.225220 0.289062 0.055939 67 33 5
0.664062 0.058929 -0.100830 67 33 5
-0.761719 -0.145996 0.354492 67 33 5
0.598633 0.084961 -0.002625 67 33 5
0.711914 0.132690 -0.157471 67 33 5
0.286865 -0.055725 -0.108521 67 33 5
0.024017 -0.110840 0.201904 67 33 5
-0.655762 0.034821 -0.000882 67 33 5
0.248169 0.281250 -0.115356 67 33 5
-0.466553 0.004406 0.112793 67 33 5
-0.327881 0.121582 -0.126343 67 33 5
0.338379 0.027756 -0.063416 67 33 5
0.705566 0.133057 -0.145752 67 33 5
0.576172 0.088806 -0.012436 67 33 5
-0.149292 0.474365 -0.265869 174 114 0
-0.163086 0.159790 -0.122009 67 33 5
0.888672 -0.163452 0.322754 67 33 5
-0.193970 -0.336426 0.012108 67 33 5
-0.072571 -0.264160 -0.220703 67 33 5
-0.946289 0.033813 -0.073975 67 33 5
0.950195 -0.054993 0.128662 67 33 5
0.610840 0.081909 -0.248901 67 33 5
0.229614 0.228638 -0.118896 67 33 5
-0.064331 -0.437500 0.304932 67 33 5
-0.133057 -0.199829 0.143677 67 33 5
0.166992 0.489014 -0.037994 67 33 5
-0.800781 -0.169067 0.374756 67 33 5
-0.629395 0.111816 -0.281738 67 33 5
-0.159912 -0.263672 0.088623 67 33 5
0.802246 -0.118896 0.322266 67 33 5
0.396729 0.050293 -0.180054 67 33 5
0.930176 -0.009422 -0.039337 67 33 5
-0.676270 0.068787 -0.177002 67 33 5
0.066040 0.212524 -0.270752 35 13 0
-0.875000 -0.132446 0.280762 67 33 5
0.540527 0.132935 -0.253662 67 33 5
0.746582 -0.105591 0.293701 67 33 5
0.783203 0.069397 -0.225830 67 33 5
0.169556 0.029526 -0.271973 67 33 5
-0.143921 -0.527832 -0.219604 160 109 0
-0.030441 0.348389 0.172852 67 33 5
0.344727 0.032440 -0.052063 67 33 5
-0.078430 0.514648 0.045563 67 33 5
0.330078 0.031555 0.027100 67 33 5
-0.197998 0.092590 0.039612 67 33 5
-0.252441 -0.178833 0.030334 67 33 5
0.104858 -0.065979 -0.306152 67 33 5
-0.003811 0.101929 -0.270508 67 33 5
0.239868 -0.204102 -0.130981 67 33 5
0.145142 -0.424316 -0.088928 67 33 5
-0.793457 0.080811 0.017776 67 33 5
0.186279 0.482178 -0.208374 174 114 0
-0.251465 -0.056610 0.076355 67 33 5
0.030167 -0.299316 0.154785 67 33 5
-0.087158 0.413330 -0.273438 35 13 0
-0.274170 -0.039948 -0.150269 67 33 5
0.159302 0.282715 -0.244873 171 116 0
-0.980469 -0.016220 0.010712 67 33 5
-0.112183 -0.108459 -0.298584 67 33 5
0.140503 -0.367920 -0.128540 67 33 5
0.197021 -0.293213 -0.092407 67 33 5
-0.709473 0.106506 -0.032410 67 33 5
-0.171997 0.161011 -0.079407 67 33 5
-0.297119 0.029053 -0.166138 67 33 5
0.040527 0.447266 -0.312988 174 114 0
0.037781 0.165527 -0.248169 67 33 5
0.150513 -0.403564 0.016388 67 33 5
-0.689453 0.070984 -0.200073 67 33 5
-0.755859 0.032410 0.111267 67 33 5
-0.656250 -0.040558 0.224121 67 33 5
-0.004650 -0.326416 0.239502 67 33 5
0.262939 0.107788 -0.158691 67 33 5
-0.037262 0.395020 -0.290771 35 13 0
-0.012726 -0.060669 -0.322021 67 33 5
-0.743164 -0.064758 0.260010 67 33 5
-0.688965 0.071655 0.032410 67 33 5
0.000263 0.366699 -0.299316 35 13 0
-0.524414 -0.050964 0.217896 67 33 5
0.749023 -0.000645 0.083313 67 33 5
-0.057312 0.200317 0.144531 67 33 5
0.220337 0.430664 -0.048615 67 33 5
0.210327 0.437500 -0.020950 67 33 5
-0.746582 0.126953 -0.126953 67 33 5
0.877930 0.022308 0.070862 67 33 5
-0.789062 0.109070 -0.219482 67 33 5
-0.648926 0.100464 -0.274170 67 33 5
-0.442383 0.067566 -0.120728 67 33 5
-0.089417 0.047699 0.164673 67 33 5
-0.746094 0.051300 -0.099731 67 33 5
0.148804 -0.538086 -0.106689 160 109 0
0.121765 -0.434814 0.275635 67 33 5
-0.568359 0.126465 -0.084839 67 33 5
0.051453 -0.373047 0.246582 67 33 5
-0.595703 -0.086609 0.269531 67 33 5
-0.948730 -0.068054 0.103760 67 33 5
-0.211182 0.062561 0.058136 67 33 5
-0.132202 -0.122070 0.169312 67 33 5
0.264404 -0.187866 -0.048279 67 33 5
-0.002262 -0.401123 0.323730 67 33 5
-0.116150 0.509277 -0.106506 67 33 5
